ply
format ascii 1.0
element vertex 1233
property float x
property float y
property float z
property uchar red
property uchar green
property uchar blue
end_header
-0.723228 -0.417270 -0.944327 96 96 88
-0.716121 -0.415185 -0.939608 96 96 89
-0.709408 -0.413308 -0.935361 101 97 90
-0.702654 -0.411388 -0.931016 99 96 89
-0.695374 -0.409141 -0.925930 101 98 91
-0.677598 -0.404690 -0.915857 88 85 78
-0.672445 -0.403640 -0.913481 87 84 77
-0.667194 -0.402520 -0.910945 90 87 80
-0.651599 -0.401255 -0.908084 104 100 87
-0.647971 -0.401098 -0.907729 100 97 86
-0.644169 -0.400831 -0.907125 104 100 91
-0.640606 -0.400712 -0.906854 99 95 86
-0.636727 -0.400392 -0.906130 92 88 79
-0.633236 -0.400313 -0.905952 90 86 77
-0.629979 -0.400383 -0.906111 88 84 75
-0.626431 -0.400268 -0.905850 93 89 80
-0.615679 -0.399844 -0.904890 104 99 89
-0.613027 -0.400308 -0.905940 105 98 87
-0.610011 -0.400539 -0.906462 105 98 88
-0.608013 -0.401443 -0.908509 108 100 90
-0.606126 -0.402433 -0.910748 105 97 87
-0.603777 -0.403124 -0.912312 93 84 75
-0.602996 -0.404876 -0.916278 89 82 72
-0.604558 -0.408230 -0.923868 91 84 74
-0.622481 -0.432617 -0.979058 106 100 88
-0.629722 -0.440222 -0.996271 104 98 86
-0.641843 -0.451350 -1.021453 104 98 86
-0.651178 -0.460639 -1.042475 100 94 82
-0.657740 -0.468065 -1.059282 94 88 76
-0.662031 -0.473955 -1.072611 90 84 72
-0.730060 -0.529029 -1.197249 100 94 82
-0.735708 -0.536390 -1.213909 109 102 90
-0.738688 -0.541886 -1.226345 108 101 90
-0.750485 -0.553957 -1.253665 109 103 87
-0.748432 -0.555893 -1.258045 106 99 84
-0.747506 -0.558695 -1.264387 106 100 87
-0.746062 -0.561143 -1.269927 104 98 84
-0.742885 -0.562311 -1.272570 97 90 80
-0.739010 -0.562962 -1.274042 93 86 74
-0.716650 -0.567753 -1.284887 40 35 39
-0.712639 -0.568362 -1.286265 40 36 40
-0.708467 -0.568851 -1.287371 40 38 44
-0.704178 -0.569251 -1.288276 40 37 44
-0.699967 -0.569720 -1.289338 39 37 49
-0.652446 -0.582915 -1.319200 41 44 70
-0.648980 -0.584209 -1.322127 42 45 74
-0.645414 -0.585431 -1.324892 42 46 79
-0.641769 -0.586600 -1.327538 45 50 79
-0.638064 -0.587731 -1.330100 46 54 80
-0.634486 -0.588998 -1.332966 46 52 82
-0.631626 -0.590957 -1.337399 49 56 95
-0.628383 -0.592586 -1.341086 49 57 93
-0.624821 -0.593937 -1.344144 52 60 100
-0.620964 -0.595028 -1.346613 48 56 94
-0.616838 -0.595877 -1.348534 51 63 107
-0.612350 -0.596387 -1.349688 51 62 103
-0.608197 -0.597234 -1.351605 53 66 112
-0.604223 -0.598272 -1.353954 56 67 110
-0.600174 -0.599254 -1.356177 53 71 122
-0.595918 -0.600043 -1.357961 56 73 122
-0.591724 -0.600909 -1.359921 56 76 126
-0.587614 -0.601876 -1.362110 58 76 125
-0.583575 -0.602933 -1.364501 56 77 130
-0.579226 -0.603685 -1.366205 57 79 132
-0.574926 -0.604502 -1.368053 60 80 137
-0.570594 -0.605300 -1.369858 60 79 137
-0.566208 -0.606054 -1.371565 61 82 138
-0.561861 -0.606865 -1.373400 62 83 139
-0.557375 -0.607538 -1.374923 62 82 139
-0.552906 -0.608243 -1.376520 62 83 141
-0.548362 -0.608877 -1.377954 63 85 142
-0.543279 -0.608920 -1.378051 62 84 142
-0.538604 -0.609424 -1.379193 61 83 141
-0.533677 -0.609651 -1.379707 63 84 144
-0.466454 -0.602299 -1.363068 60 84 146
-0.460646 -0.601330 -1.360873 61 85 147
-0.454916 -0.600442 -1.358864 60 85 147
-0.448884 -0.599131 -1.355898 59 84 146
-0.392930 -0.590764 -1.336962 61 82 142
-0.130858 -0.293106 -0.663329 53 63 98
-0.128367 -0.293047 -0.663197 46 55 77
-0.125502 -0.292114 -0.661086 37 45 67
-0.122831 -0.291606 -0.659935 26 33 49
-0.120228 -0.291241 -0.659110 18 24 38
-0.117630 -0.290875 -0.658281 13 17 25
-0.115022 -0.290467 -0.657358 11 14 23
-0.112504 -0.290274 -0.656920 15 13 22
-0.110024 -0.290171 -0.656687 11 10 19
-0.107565 -0.290120 -0.656572 12 8 13
-0.105124 -0.290117 -0.656566 11 7 14
-0.102652 -0.290027 -0.656362 13 6 13
-0.100171 -0.289906 -0.656089 13 6 13
-0.097675 -0.289735 -0.655701 15 6 13
-0.095146 -0.289453 -0.655064 16 7 15
-0.092671 -0.289328 -0.654781 15 9 11
-0.090219 -0.289268 -0.654644 16 10 13
-0.087756 -0.289169 -0.654421 15 8 13
-0.085254 -0.288932 -0.653883 16 10 15
-0.082719 -0.288566 -0.653055 19 7 10
-0.080260 -0.288451 -0.652796 20 10 13
-0.014283 -0.279141 -0.631725 39 28 27
-0.011935 -0.279141 -0.631725 36 25 26
-0.009623 -0.280172 -0.634059 31 21 21
-0.007302 -0.281555 -0.637189 27 17 18
-0.004956 -0.282781 -0.639963 24 14 14
-0.002578 -0.282836 -0.640088 23 12 15
-0.000199 -0.282327 -0.638937 21 10 12
0.002174 -0.282105 -0.638434 15 10 14
0.004548 -0.282185 -0.638615 16 9 13
0.006925 -0.282356 -0.639002 15 9 13
0.009311 -0.282694 -0.639768 14 8 10
0.011690 -0.282719 -0.639822 13 5 14
0.014068 -0.282729 -0.639846 16 7 14
0.016470 -0.283138 -0.640772 12 8 14
0.018862 -0.283302 -0.641142 13 7 13
0.021269 -0.283624 -0.641871 11 5 12
0.046085 -0.289673 -0.655560 13 14 25
0.048748 -0.291030 -0.658631 11 13 24
0.051757 -0.294218 -0.665847 20 22 34
0.054871 -0.297687 -0.673698 28 29 41
0.057967 -0.300763 -0.680659 37 39 53
0.060870 -0.302616 -0.684853 46 49 64
0.063634 -0.303663 -0.687221 50 52 67
0.066389 -0.304584 -0.689306 52 54 69
0.069174 -0.305572 -0.691542 52 54 69
0.072032 -0.306800 -0.694322 53 55 70
0.075115 -0.308868 -0.699001 51 53 68
0.253862 -0.472251 -1.068754 39 42 49
0.257249 -0.471179 -1.066328 40 40 48
0.260681 -0.470221 -1.064161 39 39 47
0.264075 -0.469225 -1.061907 39 39 47
0.267470 -0.468259 -1.059721 35 35 43
0.270882 -0.467352 -1.057667 38 38 46
0.274328 -0.466528 -1.055804 33 33 41
0.277832 -0.465824 -1.054210 35 35 43
0.281428 -0.465293 -1.053007 31 32 41
0.316994 -0.287901 -0.651551 16 16 26
0.309263 -0.240469 -0.544208 31 30 35
0.311285 -0.240469 -0.544208 31 30 35
0.315485 -0.237541 -0.537580 22 21 27
0.316694 -0.236950 -0.536244 23 24 24
0.317982 -0.236427 -0.535059 18 18 20
0.319299 -0.235930 -0.533935 17 16 19
0.324843 -0.234205 -0.530031 35 34 36
0.327138 -0.234438 -0.530558 42 40 43
0.328802 -0.234219 -0.530062 47 45 47
0.330540 -0.234055 -0.529691 48 46 47
0.332335 -0.233932 -0.529414 48 46 47
0.334096 -0.233788 -0.529087 47 45 46
0.335647 -0.233499 -0.528434 48 46 47
0.336860 -0.232980 -0.527258 47 45 46
0.358403 -0.229213 -0.518734 48 46 47
0.762610 -0.303347 -0.686506 36 34 39
0.763989 -0.302882 -0.685454 35 33 38
0.767952 -0.303441 -0.686720 35 32 37
0.769822 -0.303172 -0.686112 35 33 38
0.770895 -0.302593 -0.684800 34 33 38
0.772358 -0.302169 -0.683842 36 35 40
0.775035 -0.302223 -0.683962 31 30 35
0.776946 -0.301977 -0.683407 31 30 35
0.778693 -0.301670 -0.682712 31 30 35
0.780438 -0.301364 -0.682019 29 28 33
0.782332 -0.301118 -0.681462 25 24 29
0.784808 -0.301096 -0.681413 24 23 28
0.786557 -0.300796 -0.680735 21 20 25
0.788573 -0.300601 -0.680292 20 19 24
0.791056 -0.300583 -0.680252 20 19 24
0.793657 -0.300611 -0.680315 20 19 24
0.796311 -0.300659 -0.680423 18 17 22
-0.764134 -0.429974 -0.964962 69 70 63
-0.760790 -0.430111 -0.965269 65 67 60
-0.756452 -0.429685 -0.964312 77 76 71
-0.751254 -0.428763 -0.962245 84 82 77
-0.745061 -0.427263 -0.958877 90 89 84
-0.738265 -0.425400 -0.954697 92 91 86
-0.731676 -0.423639 -0.950745 92 91 86
-0.723878 -0.421158 -0.945176 96 96 87
-0.716789 -0.419067 -0.940484 96 96 88
-0.710105 -0.417194 -0.936280 101 97 90
-0.703284 -0.415221 -0.931852 99 96 89
-0.696313 -0.413139 -0.927180 99 96 89
-0.678358 -0.408551 -0.916883 88 85 78
-0.673296 -0.407550 -0.914636 86 83 76
-0.668348 -0.406608 -0.912522 89 86 79
-0.652197 -0.405001 -0.908917 105 99 96
-0.648557 -0.404838 -0.908550 104 97 94
-0.644773 -0.404582 -0.907976 103 99 89
-0.641313 -0.404528 -0.907855 100 96 87
-0.637350 -0.404154 -0.907016 94 90 81
-0.633857 -0.404076 -0.906841 89 85 76
-0.630691 -0.404207 -0.907135 89 85 76
-0.627257 -0.404166 -0.907044 89 85 76
-0.616549 -0.403777 -0.906169 102 99 89
-0.613692 -0.404113 -0.906923 100 98 86
-0.610689 -0.404356 -0.907469 103 99 88
-0.608729 -0.405296 -0.909579 106 99 89
-0.606784 -0.406257 -0.911736 104 97 87
-0.604197 -0.406797 -0.912947 93 86 76
-0.603185 -0.408409 -0.916565 88 81 71
-0.604029 -0.411303 -0.923059 90 83 73
-0.618488 -0.433457 -0.972777 105 99 87
-0.625232 -0.440760 -0.989168 104 98 86
-0.637192 -0.451847 -1.014051 104 98 86
-0.646736 -0.461344 -1.035362 101 95 82
-0.654066 -0.469365 -1.053364 93 87 75
-0.657476 -0.474653 -1.065232 88 82 70
-0.750604 -0.558705 -1.253864 107 102 88
-0.750159 -0.561862 -1.260948 104 99 85
-0.749512 -0.564906 -1.267781 106 98 89
-0.747826 -0.567201 -1.272930 106 99 87
-0.744492 -0.568266 -1.275322 101 93 87
-0.720513 -0.571805 -1.283263 43 37 39
-0.717200 -0.572968 -1.285873 44 36 41
-0.713199 -0.573593 -1.287275 42 36 41
-0.708982 -0.574052 -1.288305 40 36 46
-0.704623 -0.574401 -1.289090 42 37 47
-0.655856 -0.586483 -1.316205 40 45 67
-0.652530 -0.587894 -1.319371 41 47 69
-0.649076 -0.589209 -1.322323 43 49 75
-0.645375 -0.590319 -1.324813 44 50 79
-0.641709 -0.591478 -1.327414 44 51 80
-0.637980 -0.592596 -1.329923 45 53 85
-0.634335 -0.593811 -1.332649 48 56 88
-0.631355 -0.595671 -1.336825 49 59 95
-0.628063 -0.597266 -1.340403 50 59 94
-0.624398 -0.598527 -1.343235 47 60 99
-0.620440 -0.599526 -1.345476 49 61 98
-0.616360 -0.600423 -1.347489 48 61 105
-0.612066 -0.601124 -1.349062 51 65 105
-0.607997 -0.602059 -1.351160 55 70 116
-0.604032 -0.603114 -1.353528 55 68 111
-0.599990 -0.604108 -1.355759 56 72 122
-0.595740 -0.604909 -1.357556 58 74 122
-0.591546 -0.605780 -1.359512 58 74 128
-0.587431 -0.606749 -1.361686 59 75 128
-0.583373 -0.607793 -1.364030 57 77 131
-0.578845 -0.608362 -1.365306 59 80 133
-0.574510 -0.609145 -1.367063 59 81 136
-0.570207 -0.609976 -1.368929 60 82 137
-0.565867 -0.610783 -1.370739 61 83 140
-0.561543 -0.611622 -1.372621 62 83 141
-0.557212 -0.612469 -1.374522 61 83 141
-0.460709 -0.606470 -1.361060 62 86 149
-0.454944 -0.605529 -1.358949 62 87 150
-0.448948 -0.604256 -1.356092 61 86 149
-0.130948 -0.295774 -0.663786 52 64 99
-0.128456 -0.295717 -0.663658 43 54 76
-0.125600 -0.294803 -0.661606 34 43 67
-0.122943 -0.294327 -0.660538 25 32 55
-0.120352 -0.293995 -0.659792 16 23 44
-0.117761 -0.293647 -0.659012 11 15 33
-0.115142 -0.293215 -0.658042 10 14 31
-0.112624 -0.293026 -0.657618 13 14 28
-0.110149 -0.292944 -0.657435 9 10 24
-0.107698 -0.292922 -0.657386 12 8 18
-0.105261 -0.292939 -0.657424 10 8 18
-0.102767 -0.292793 -0.657097 11 8 17
-0.100277 -0.292653 -0.656781 10 7 16
-0.097801 -0.292550 -0.656550 10 6 14
-0.095343 -0.292492 -0.656420 10 7 15
-0.092844 -0.292307 -0.656005 13 7 12
-0.090334 -0.292074 -0.655482 12 7 13
-0.087825 -0.291830 -0.654935 13 8 12
-0.085328 -0.291615 -0.654452 11 7 11
-0.082852 -0.291461 -0.654107 14 7 10
-0.080413 -0.291430 -0.654036 16 9 14
-0.077960 -0.291348 -0.653852 18 12 12
-0.075455 -0.291056 -0.653198 18 14 14
-0.072947 -0.290735 -0.652477 29 18 21
-0.070502 -0.290655 -0.652297 27 16 20
-0.016887 -0.285839 -0.641490 30 20 20
-0.014487 -0.285522 -0.640778 30 19 20
-0.012042 -0.284023 -0.637414 27 16 20
-0.009684 -0.284323 -0.638087 24 14 17
-0.007329 -0.284949 -0.639492 18 13 16
-0.004962 -0.285508 -0.640747 18 11 14
-0.002581 -0.285557 -0.640855 15 8 12
-0.000199 -0.285373 -0.640443 16 10 13
0.002179 -0.285174 -0.639996 11 7 14
0.004557 -0.285105 -0.639841 15 10 17
0.006941 -0.285383 -0.640466 14 8 14
0.009328 -0.285601 -0.640954 12 7 12
0.011714 -0.285690 -0.641154 12 6 14
0.014100 -0.285763 -0.641319 14 8 15
0.016496 -0.285968 -0.641778 8 6 13
0.051706 -0.296398 -0.665187 17 20 34
0.054793 -0.299767 -0.672747 24 26 41
0.057882 -0.302846 -0.679657 35 38 53
0.060792 -0.304774 -0.683984 45 48 65
0.063563 -0.305877 -0.686459 48 52 69
0.066303 -0.306748 -0.688414 49 55 72
0.069053 -0.307605 -0.690337 48 54 70
0.071866 -0.308664 -0.692714 49 54 70
0.074847 -0.310352 -0.696501 50 54 70
0.253848 -0.476196 -1.068696 39 42 49
0.257221 -0.475091 -1.066214 41 40 49
0.260628 -0.474079 -1.063944 41 41 49
0.264020 -0.473072 -1.061684 37 37 45
0.274284 -0.470376 -1.055634 34 34 42
0.277805 -0.469696 -1.054108 33 33 41
0.281409 -0.469174 -1.052935 31 32 41
0.319279 -0.290199 -0.651274 17 17 27
0.321629 -0.290135 -0.651130 18 18 27
0.309673 -0.242814 -0.544931 30 29 34
0.311698 -0.242814 -0.544931 31 30 35
0.312435 -0.241816 -0.542692 30 29 34
0.317703 -0.238205 -0.534588 19 19 21
0.318950 -0.237654 -0.533352 19 19 21
0.320091 -0.237031 -0.531953 17 18 20
0.320909 -0.236178 -0.530039 18 17 20
0.321966 -0.235511 -0.528541 20 19 22
0.323764 -0.235390 -0.528270 29 27 31
0.326187 -0.235723 -0.529017 38 36 40
0.328315 -0.235839 -0.529277 43 41 43
0.330298 -0.235850 -0.529303 47 45 45
0.332140 -0.235762 -0.529104 49 47 48
0.333793 -0.235540 -0.528608 48 46 47
0.335161 -0.235122 -0.527669 49 47 48
0.336610 -0.234765 -0.526867 48 46 47
0.765629 -0.305067 -0.684642 34 32 37
0.767602 -0.304841 -0.684133 34 32 37
0.767987 -0.303986 -0.682216 35 32 37
0.769292 -0.303501 -0.681127 35 33 38
0.773234 -0.304056 -0.682373 33 32 37
0.775280 -0.303864 -0.681941 34 33 38
0.777133 -0.303598 -0.681344 32 31 36
0.778975 -0.303329 -0.680741 28 27 32
0.780925 -0.303104 -0.680236 27 26 31
0.783167 -0.302994 -0.679988 22 21 26
0.785163 -0.302789 -0.679528 22 21 26
0.787636 -0.302768 -0.679483 21 20 25
0.790582 -0.302930 -0.679845 20 19 24
0.793245 -0.302982 -0.679962 21 20 25
0.795872 -0.303020 -0.680047 20 19 24
-0.760964 -0.433798 -0.965490 64 66 59
-0.756869 -0.433507 -0.964844 73 72 66
-0.751919 -0.432722 -0.963097 80 78 73
-0.745861 -0.431289 -0.959906 87 86 81
-0.739119 -0.429444 -0.955801 88 87 83
-0.732601 -0.427713 -0.951947 88 88 81
-0.724724 -0.425167 -0.946281 91 93 83
-0.717613 -0.423048 -0.941565 94 94 86
-0.710944 -0.421170 -0.937385 98 95 88
-0.704126 -0.419185 -0.932967 99 96 89
-0.697291 -0.417170 -0.928482 98 96 88
-0.690925 -0.415417 -0.924582 98 95 88
-0.684855 -0.413826 -0.921039 92 89 83
-0.678987 -0.412341 -0.917734 87 85 78
-0.674056 -0.411413 -0.915669 84 81 75
-0.669459 -0.410680 -0.914038 85 82 76
-0.664789 -0.409895 -0.912291 94 92 86
-0.660039 -0.409053 -0.910416 101 99 93
-0.656343 -0.408858 -0.909982 101 98 91
-0.652884 -0.408809 -0.909875 104 100 89
-0.649249 -0.408649 -0.909519 102 97 88
-0.645467 -0.408395 -0.908953 103 99 91
-0.642041 -0.408365 -0.908885 101 97 89
-0.638076 -0.407989 -0.908049 93 89 81
-0.634618 -0.407936 -0.907930 87 83 75
-0.631499 -0.408101 -0.908298 84 80 72
-0.628054 -0.408055 -0.908196 89 85 77
-0.624051 -0.407645 -0.907284 100 93 86
-0.614263 -0.407862 -0.907767 107 98 88
-0.611443 -0.408232 -0.908589 108 100 90
-0.609469 -0.409173 -0.910685 105 98 88
-0.603665 -0.414484 -0.922504 89 82 72
-0.606060 -0.418504 -0.931453 91 83 74
-0.613142 -0.433294 -0.964370 104 97 85
-0.618699 -0.439792 -0.978832 104 98 86
-0.630070 -0.450523 -1.002716 106 100 89
-0.650191 -0.473308 -1.053428 88 82 70
-0.749116 -0.562248 -1.251378 105 99 87
-0.750819 -0.567046 -1.262058 106 100 88
-0.749921 -0.569928 -1.268472 103 98 89
-0.748019 -0.572079 -1.273259 106 100 88
-0.744808 -0.573250 -1.275865 100 95 91
-0.728648 -0.575466 -1.280796 50 49 47
-0.724572 -0.576009 -1.282005 43 43 41
-0.721416 -0.577296 -1.284870 38 37 38
-0.717951 -0.578351 -1.287218 39 37 41
-0.713909 -0.578953 -1.288558 39 38 44
-0.709594 -0.579340 -1.289419 37 37 48
-0.705188 -0.579656 -1.290123 38 38 48
-0.663043 -0.589069 -1.311072 39 48 71
-0.659397 -0.590166 -1.313516 38 46 69
-0.656006 -0.591510 -1.316507 35 45 70
-0.652645 -0.592902 -1.319603 37 48 72
-0.649176 -0.594215 -1.322526 38 50 77
-0.645423 -0.595286 -1.324911 39 51 79
-0.641708 -0.596410 -1.327412 39 52 82
-0.637940 -0.597501 -1.329840 39 54 87
-0.634248 -0.598681 -1.332466 42 57 90
-0.631148 -0.600443 -1.336388 42 59 94
-0.627801 -0.601995 -1.339843 42 58 92
-0.624039 -0.603172 -1.342462 50 65 105
-0.619989 -0.604088 -1.344500 52 67 104
-0.615949 -0.605027 -1.346590 50 68 112
-0.611715 -0.605790 -1.348288 52 68 109
-0.607621 -0.606705 -1.350325 47 66 113
-0.603628 -0.607736 -1.352621 51 69 113
-0.599654 -0.608806 -1.355001 54 74 125
-0.595387 -0.609592 -1.356752 57 75 125
-0.591186 -0.610461 -1.358685 56 78 128
-0.587070 -0.611433 -1.360849 57 79 128
-0.583010 -0.612481 -1.363180 57 79 132
-0.578424 -0.612989 -1.364312 58 79 132
-0.574086 -0.613773 -1.366056 59 83 136
-0.569804 -0.614630 -1.367963 61 85 138
-0.565488 -0.615465 -1.369823 59 85 141
-0.561173 -0.616317 -1.371718 59 87 143
-0.556923 -0.617257 -1.373810 61 88 144
-0.131059 -0.298495 -0.664351 50 64 100
-0.128566 -0.298438 -0.664225 40 55 81
-0.125712 -0.297525 -0.662193 32 43 68
-0.123061 -0.297067 -0.661174 25 33 54
-0.120475 -0.296749 -0.660465 17 24 46
-0.117882 -0.296401 -0.659691 11 16 37
-0.115258 -0.295958 -0.658704 9 13 32
-0.112736 -0.295765 -0.658276 12 13 29
-0.110264 -0.295695 -0.658119 8 10 26
-0.107814 -0.295684 -0.658095 10 9 19
-0.105358 -0.295655 -0.658030 10 10 20
-0.102877 -0.295551 -0.657799 10 7 16
-0.100387 -0.295418 -0.657504 11 8 18
-0.097916 -0.295335 -0.657319 9 7 14
-0.095508 -0.295443 -0.657559 9 7 15
-0.092958 -0.295106 -0.656808 12 7 12
-0.090425 -0.294806 -0.656140 11 7 13
-0.087923 -0.294593 -0.655667 13 8 12
-0.085455 -0.294484 -0.655424 11 7 12
-0.083000 -0.294416 -0.655273 13 5 12
-0.080504 -0.294194 -0.654778 14 8 14
-0.077993 -0.293902 -0.654129 16 9 16
-0.075487 -0.293611 -0.653481 15 9 16
-0.072979 -0.293290 -0.652767 14 8 11
-0.070555 -0.293299 -0.652787 17 11 14
-0.068165 -0.293453 -0.653129 17 11 14
-0.065708 -0.293319 -0.652830 16 11 14
-0.063245 -0.293148 -0.652450 22 13 17
-0.060792 -0.293011 -0.652145 21 11 16
-0.058342 -0.292881 -0.651856 20 14 15
-0.055895 -0.292750 -0.651566 20 16 16
-0.053450 -0.292621 -0.651279 25 16 18
-0.050991 -0.292402 -0.650791 26 17 20
-0.048530 -0.292145 -0.650219 29 20 22
-0.046074 -0.291896 -0.649664 30 22 24
-0.043635 -0.291728 -0.649291 30 21 22
-0.041197 -0.291551 -0.648895 28 20 19
-0.038768 -0.291417 -0.648598 29 20 20
-0.036326 -0.291165 -0.648037 29 20 20
-0.033851 -0.290595 -0.646768 28 19 20
-0.031466 -0.290762 -0.647141 27 18 21
-0.029048 -0.290631 -0.646848 26 16 18
-0.026623 -0.290405 -0.646347 24 14 17
-0.024209 -0.290257 -0.646017 22 13 15
-0.021804 -0.290200 -0.645889 21 11 12
-0.019394 -0.290052 -0.645561 18 10 12
-0.016939 -0.289107 -0.643457 16 10 14
-0.014520 -0.288560 -0.642240 16 9 13
-0.012131 -0.288501 -0.642107 16 9 13
-0.009744 -0.288483 -0.642068 15 9 13
-0.007358 -0.288477 -0.642055 12 8 15
-0.004972 -0.288480 -0.642061 14 9 15
-0.002586 -0.288509 -0.642126 12 8 14
-0.000200 -0.288475 -0.642050 12 7 12
0.002185 -0.288278 -0.641613 13 8 15
0.004566 -0.288102 -0.641220 12 8 14
0.006955 -0.288343 -0.641756 13 7 15
0.009343 -0.288425 -0.641939 13 7 14
0.011734 -0.288550 -0.642217 13 8 15
0.051655 -0.298576 -0.664531 16 19 34
0.054720 -0.301864 -0.671850 22 25 41
0.057808 -0.304982 -0.678790 33 36 53
0.060726 -0.306982 -0.683240 43 46 64
0.063510 -0.308169 -0.685884 48 53 69
0.066239 -0.309009 -0.687753 48 56 70
0.068960 -0.309752 -0.689406 47 54 70
0.071734 -0.310670 -0.691449 48 55 72
0.074645 -0.312095 -0.694620 48 55 72
0.250401 -0.481175 -1.070936 39 43 50
0.281444 -0.473146 -1.053066 31 32 41
0.285042 -0.472623 -1.051902 35 33 38
0.307912 -0.293318 -0.652830 25 25 35
0.321486 -0.292425 -0.650841 17 17 26
0.323726 -0.292263 -0.650482 18 18 25
0.311808 -0.244925 -0.545123 31 30 35
0.312495 -0.243880 -0.542797 34 33 37
0.318487 -0.239289 -0.532578 19 19 20
0.319492 -0.238561 -0.530958 17 18 19
0.320097 -0.237546 -0.528698 17 15 18
0.321001 -0.236763 -0.526957 19 16 19
0.322542 -0.236458 -0.526277 23 20 23
0.324738 -0.236633 -0.526667 29 27 30
0.327282 -0.237057 -0.527612 37 34 36
0.329658 -0.237356 -0.528277 44 41 42
0.331740 -0.237442 -0.528467 48 45 46
0.333469 -0.237274 -0.528094 48 45 46
0.334765 -0.236803 -0.527045 49 47 48
0.336263 -0.236479 -0.526323 49 46 47
0.337521 -0.235991 -0.525238 47 45 46
0.764971 -0.304314 -0.677302 34 32 37
0.770223 -0.305398 -0.679716 35 33 38
0.771401 -0.304865 -0.678530 35 32 37
0.773948 -0.304875 -0.678552 33 31 36
0.776549 -0.304906 -0.678621 31 31 36
0.778568 -0.304710 -0.678183 31 30 35
0.780176 -0.304354 -0.677390 30 29 34
0.782418 -0.304246 -0.677152 28 27 32
0.785528 -0.304477 -0.677664 25 24 29
0.789169 -0.304910 -0.678630 22 21 26
0.791965 -0.305016 -0.678865 22 21 26
0.794906 -0.305176 -0.679222 20 19 24
0.797856 -0.305340 -0.679585 21 20 25
0.800865 -0.305524 -0.679995 21 20 25
0.804076 -0.305784 -0.680574 20 19 24
-0.761094 -0.437461 -0.965656 65 67 61
-0.757300 -0.437342 -0.965394 70 69 63
-0.752497 -0.436637 -0.963837 73 72 67
-0.746694 -0.435342 -0.960978 83 82 77
-0.740209 -0.433635 -0.957210 87 86 82
-0.733658 -0.431872 -0.953320 88 87 81
-0.725656 -0.429235 -0.947498 92 89 81
-0.718489 -0.427068 -0.942714 94 91 84
-0.711928 -0.425241 -0.938683 98 95 88
-0.705485 -0.423468 -0.934767 98 95 89
-0.698351 -0.421260 -0.929895 99 94 88
-0.691876 -0.419430 -0.925854 101 96 91
-0.670435 -0.414681 -0.915371 89 85 76
-0.665716 -0.413862 -0.913564 96 92 83
-0.660810 -0.412918 -0.911480 101 96 87
-0.656995 -0.412649 -0.910886 101 97 87
-0.653671 -0.412688 -0.910972 103 99 90
-0.650136 -0.412593 -0.910762 101 98 88
-0.646362 -0.412344 -0.910214 100 97 84
-0.642945 -0.412322 -0.910164 101 97 86
-0.632580 -0.412180 -0.909852 88 84 73
-0.629204 -0.412183 -0.909859 86 83 71
-0.624963 -0.411618 -0.908610 98 92 80
-0.614877 -0.411647 -0.908675 104 97 87
-0.612473 -0.412302 -0.910121 102 95 85
-0.610646 -0.413355 -0.912444 103 96 86
-0.603993 -0.418138 -0.923004 92 85 75
-0.604832 -0.421111 -0.929566 88 81 71
-0.607918 -0.433156 -0.956153 104 96 87
-0.611159 -0.438025 -0.966902 106 98 89
-0.621058 -0.447752 -0.988374 106 98 89
-0.641678 -0.470975 -1.039635 89 82 72
-0.672107 -0.499322 -1.102209 94 87 77
-0.752306 -0.572868 -1.264557 108 101 90
-0.750107 -0.574785 -1.268787 100 97 86
-0.748303 -0.577030 -1.273743 105 101 88
-0.745229 -0.578317 -1.276585 100 98 90
-0.726328 -0.582181 -1.285113 39 39 40
-0.722596 -0.583023 -1.286972 37 37 40
-0.718809 -0.583831 -1.288756 37 36 42
-0.714673 -0.584366 -1.289936 38 38 45
-0.710283 -0.584698 -1.290671 38 38 48
-0.663150 -0.594037 -1.311285 37 45 69
-0.659513 -0.595152 -1.313746 39 47 69
-0.656094 -0.596483 -1.316683 37 47 74
-0.652718 -0.597872 -1.319750 36 46 74
-0.649258 -0.599206 -1.322694 39 50 79
-0.645484 -0.600267 -1.325037 40 51 83
-0.641753 -0.601386 -1.327506 40 52 84
-0.637982 -0.602483 -1.329929 41 55 88
-0.634284 -0.603667 -1.332542 43 57 91
-0.631106 -0.605369 -1.336298 46 61 101
-0.627718 -0.606895 -1.339667 45 59 98
-0.623934 -0.608059 -1.342236 50 62 107
-0.619870 -0.608967 -1.344241 52 63 107
-0.615813 -0.609896 -1.346292 50 63 111
-0.611291 -0.610376 -1.347352 53 64 109
-0.606984 -0.611082 -1.348909 51 72 123
-0.602927 -0.612052 -1.351050 53 71 119
-0.599094 -0.613268 -1.353735 50 72 123
-0.594795 -0.614023 -1.355403 52 73 121
-0.590585 -0.614885 -1.357304 56 79 134
-0.586479 -0.615870 -1.359478 56 77 132
-0.582454 -0.616958 -1.361881 55 80 135
-0.578090 -0.617703 -1.363525 57 80 135
-0.573821 -0.618564 -1.365425 56 82 139
-0.569540 -0.619426 -1.367328 57 83 141
-0.565204 -0.620244 -1.369134 59 84 141
-0.560878 -0.621088 -1.370998 60 85 142
-0.556528 -0.621921 -1.372835 61 86 143
-0.552168 -0.622757 -1.374682 60 85 143
-0.547682 -0.623466 -1.376247 59 85 142
-0.542676 -0.623591 -1.376522 59 86 143
-0.501474 -0.623246 -1.375761 62 89 148
-0.131176 -0.301231 -0.664940 49 63 98
-0.128680 -0.301174 -0.664815 39 55 79
-0.125828 -0.300263 -0.662805 33 44 69
-0.123183 -0.299821 -0.661828 27 34 55
-0.120593 -0.299496 -0.661111 19 26 47
-0.117989 -0.299123 -0.660287 13 18 37
-0.115390 -0.298748 -0.659460 10 14 32
-0.112849 -0.298510 -0.658934 13 14 29
-0.110361 -0.298402 -0.658696 10 12 26
-0.107908 -0.298389 -0.658668 10 11 19
-0.105451 -0.298362 -0.658608 9 10 19
-0.102998 -0.298347 -0.658574 10 6 14
-0.100508 -0.298222 -0.658299 11 8 17
-0.098015 -0.298081 -0.657988 10 7 13
-0.095593 -0.298151 -0.658142 10 7 14
-0.093043 -0.297820 -0.657411 13 7 14
-0.090512 -0.297531 -0.656775 12 7 14
-0.088027 -0.297380 -0.656440 13 8 15
-0.085604 -0.297436 -0.656565 12 8 15
-0.083093 -0.297182 -0.656004 14 5 15
-0.080581 -0.296910 -0.655402 13 5 15
-0.078071 -0.296627 -0.654779 15 8 16
-0.075564 -0.296342 -0.654148 13 6 14
-0.073059 -0.296039 -0.653480 11 5 11
-0.070612 -0.295964 -0.653314 14 8 14
-0.068171 -0.295907 -0.653188 11 5 12
-0.065714 -0.295771 -0.652889 14 8 16
-0.063251 -0.295599 -0.652509 15 6 12
-0.060797 -0.295461 -0.652205 17 8 14
-0.058350 -0.295340 -0.651938 18 10 14
-0.055904 -0.295221 -0.651674 18 10 14
-0.053455 -0.295070 -0.651341 20 11 16
-0.050996 -0.294848 -0.650851 21 11 16
-0.048535 -0.294590 -0.650282 23 14 18
-0.046080 -0.294346 -0.649743 22 13 18
-0.043644 -0.294201 -0.649423 24 15 19
-0.041206 -0.294026 -0.649036 23 13 17
-0.038776 -0.293892 -0.648740 21 12 16
-0.036334 -0.293640 -0.648184 23 14 17
-0.033860 -0.293071 -0.646928 23 14 18
-0.031473 -0.293230 -0.647279 21 11 16
-0.029054 -0.293094 -0.646980 19 10 14
-0.026628 -0.292859 -0.646461 17 11 14
-0.024211 -0.292690 -0.646088 15 8 12
-0.021806 -0.292632 -0.645959 15 8 12
-0.019396 -0.292482 -0.645628 13 7 10
-0.016978 -0.292173 -0.644947 12 7 11
-0.014560 -0.291747 -0.644006 13 8 12
-0.012163 -0.291654 -0.643800 13 7 14
-0.009769 -0.291604 -0.643691 13 7 14
-0.007376 -0.291573 -0.643622 11 7 13
-0.004984 -0.291555 -0.643582 12 7 14
-0.002592 -0.291555 -0.643582 12 8 14
-0.000200 -0.291297 -0.643013 11 6 13
0.002189 -0.291165 -0.642721 13 8 15
0.004578 -0.291211 -0.642823 13 7 14
0.006972 -0.291414 -0.643271 11 8 15
0.051606 -0.300761 -0.663903 17 20 34
0.054654 -0.303994 -0.671040 23 26 41
0.057747 -0.307182 -0.678078 34 37 53
0.060670 -0.309234 -0.682607 43 45 63
0.063466 -0.310502 -0.685407 47 52 68
0.066190 -0.311334 -0.687243 49 56 71
0.068888 -0.311987 -0.688685 48 54 70
0.071623 -0.312753 -0.690374 48 54 70
0.074487 -0.314014 -0.693158 47 53 70
0.250444 -0.485238 -1.071120 40 43 50
0.281497 -0.477149 -1.053264 31 34 37
0.309983 -0.295406 -0.652084 24 24 38
0.312115 -0.295131 -0.651475 26 26 37
0.314423 -0.295024 -0.651240 26 26 35
0.321310 -0.294683 -0.650486 18 18 29
0.323539 -0.294510 -0.650106 17 17 28
0.325760 -0.294334 -0.649717 18 18 29
0.313156 -0.244837 -0.540456 30 29 36
0.318710 -0.239945 -0.529658 18 18 22
0.319173 -0.238819 -0.527172 17 16 20
0.320007 -0.237982 -0.525325 17 15 19
0.321253 -0.237460 -0.524173 18 17 21
0.322991 -0.237306 -0.523832 20 19 23
0.325440 -0.237673 -0.524642 28 26 30
0.328281 -0.238320 -0.526070 40 39 40
0.330892 -0.238794 -0.527116 44 43 45
0.333080 -0.238958 -0.527478 47 46 47
0.334664 -0.238690 -0.526887 49 48 49
0.335905 -0.238181 -0.525764 49 47 47
0.337076 -0.237629 -0.524546 49 48 49
0.769184 -0.305505 -0.674375 35 33 38
0.773384 -0.306175 -0.675855 34 32 37
0.775481 -0.306012 -0.675494 33 30 35
0.775810 -0.305154 -0.673600 32 31 36
0.778207 -0.305112 -0.673508 31 30 35
0.782062 -0.305641 -0.674675 29 28 33
0.786534 -0.306406 -0.676364 27 26 31
0.789402 -0.306543 -0.676668 26 25 30
0.793085 -0.306996 -0.677666 22 21 26
0.796473 -0.307331 -0.678407 22 21 26
0.799611 -0.307568 -0.678930 21 20 25
0.802970 -0.307889 -0.679638 20 19 24
0.805841 -0.308021 -0.679930 21 20 25
-0.761286 -0.441161 -0.965899 65 67 62
-0.757682 -0.441152 -0.965880 70 69 63
-0.753290 -0.440683 -0.964853 69 67 62
-0.747836 -0.439584 -0.962449 78 77 72
-0.741514 -0.437963 -0.958898 85 84 80
-0.734788 -0.436086 -0.954789 89 87 81
-0.726856 -0.433471 -0.949064 92 90 82
-0.719482 -0.431166 -0.944017 92 90 83
-0.712725 -0.429209 -0.939733 97 94 87
-0.706486 -0.427548 -0.936095 98 95 88
-0.699417 -0.425364 -0.931314 101 94 89
-0.692980 -0.423545 -0.927332 101 94 90
-0.671475 -0.418731 -0.916791 90 86 76
-0.667045 -0.418090 -0.915387 93 89 80
-0.662582 -0.417421 -0.913924 95 91 82
-0.657991 -0.416665 -0.912267 98 93 84
-0.654606 -0.416668 -0.912275 102 98 89
-0.651138 -0.416619 -0.912166 103 98 90
-0.647330 -0.416349 -0.911576 105 96 85
-0.643582 -0.416116 -0.911067 105 96 86
-0.633675 -0.416281 -0.911426 86 82 71
-0.630322 -0.416303 -0.911476 87 84 72
-0.627041 -0.416374 -0.911631 93 86 76
-0.616158 -0.415889 -0.910568 105 98 88
-0.613789 -0.416578 -0.912076 104 97 87
-0.611964 -0.417645 -0.914414 103 96 86
-0.604766 -0.422109 -0.924186 91 84 74
-0.605261 -0.424867 -0.930226 90 83 73
-0.606746 -0.435867 -0.954309 106 99 89
-0.607111 -0.438693 -0.960498 104 97 87
-0.614698 -0.446803 -0.978253 103 96 86
-0.634310 -0.469386 -1.027698 89 82 72
-0.672107 -0.503418 -1.102209 92 85 74
-0.668011 -0.503418 -1.102209 97 91 78
-0.752128 -0.577432 -1.264258 107 99 89
-0.751132 -0.580292 -1.270520 101 98 88
-0.750538 -0.583501 -1.277546 107 103 92
-0.731398 -0.587193 -1.285630 38 35 40
-0.726355 -0.586978 -1.285160 37 35 39
-0.722699 -0.587889 -1.287155 38 37 43
-0.718977 -0.588759 -1.289059 38 37 44
-0.714834 -0.589292 -1.290227 38 37 47
-0.710501 -0.589676 -1.291066 38 38 50
-0.663145 -0.598906 -1.311275 37 45 69
-0.659494 -0.600017 -1.313709 39 46 68
-0.656099 -0.601380 -1.316693 39 48 75
-0.652709 -0.602769 -1.319733 38 48 75
-0.649186 -0.604054 -1.322547 40 50 80
-0.645427 -0.605138 -1.324920 42 52 83
-0.641652 -0.606223 -1.327295 40 52 83
-0.637839 -0.607289 -1.329630 40 53 85
-0.634133 -0.608475 -1.332226 43 57 89
-0.631022 -0.610254 -1.336122 46 61 95
-0.627550 -0.611710 -1.339308 46 61 95
-0.623747 -0.612863 -1.341834 45 61 103
-0.619712 -0.613806 -1.343899 48 64 104
-0.615629 -0.614716 -1.345891 49 68 113
-0.611109 -0.615201 -1.346952 48 65 108
-0.606792 -0.615900 -1.348483 51 70 120
-0.602716 -0.616857 -1.350578 52 69 116
-0.598861 -0.618059 -1.353210 53 74 126
-0.594611 -0.618869 -1.354983 58 78 130
-0.590406 -0.619741 -1.356893 56 78 132
-0.586286 -0.620718 -1.359032 55 76 130
-0.582249 -0.621800 -1.361402 55 78 133
-0.577886 -0.622550 -1.363042 59 81 135
-0.573605 -0.623402 -1.364909 59 84 140
-0.569350 -0.624299 -1.366872 60 86 143
-0.565083 -0.625198 -1.368840 58 83 140
-0.560735 -0.626023 -1.370647 59 85 141
-0.556384 -0.626860 -1.372479 59 85 142
-0.552040 -0.627720 -1.374363 60 86 143
-0.547579 -0.628462 -1.375988 62 88 145
-0.542585 -0.628600 -1.376290 61 87 145
-0.501399 -0.628265 -1.375555 61 88 147
-0.131248 -0.303870 -0.665309 49 63 97
-0.128754 -0.303819 -0.665197 40 55 79
-0.125941 -0.302999 -0.663401 34 46 70
-0.123306 -0.302582 -0.662489 26 36 58
-0.120715 -0.302259 -0.661782 18 26 47
-0.118108 -0.301881 -0.660954 14 18 37
-0.115503 -0.301495 -0.660109 11 16 33
-0.112963 -0.301262 -0.659599 14 16 30
-0.110473 -0.301156 -0.659366 11 13 26
-0.108013 -0.301130 -0.659309 12 12 20
-0.105538 -0.301059 -0.659155 11 10 20
-0.103080 -0.301035 -0.659101 12 7 16
-0.100620 -0.301003 -0.659031 10 7 16
-0.098152 -0.300946 -0.658906 11 8 15
-0.095672 -0.300845 -0.658686 10 7 14
-0.093120 -0.300509 -0.657951 13 7 15
-0.090616 -0.300316 -0.657527 12 7 15
-0.088141 -0.300207 -0.657290 11 6 13
-0.085661 -0.300078 -0.657005 11 6 13
-0.083156 -0.299848 -0.656504 12 6 13
-0.080645 -0.299586 -0.655928 12 7 14
-0.078135 -0.299306 -0.655317 14 6 14
-0.075630 -0.299032 -0.654716 13 6 13
-0.073155 -0.298862 -0.654344 11 4 12
-0.070688 -0.298713 -0.654018 14 7 15
-0.068227 -0.298576 -0.653718 11 4 11
-0.065767 -0.298441 -0.653421 13 7 14
-0.063302 -0.298267 -0.653041 17 6 13
-0.060848 -0.298131 -0.652743 16 5 12
-0.058416 -0.298100 -0.652675 17 9 16
-0.055988 -0.298089 -0.652651 16 8 15
-0.053501 -0.297748 -0.651905 17 9 16
-0.051039 -0.297514 -0.651391 16 8 15
-0.048578 -0.297268 -0.650853 16 8 15
-0.046131 -0.297086 -0.650456 14 6 13
-0.043724 -0.297159 -0.650616 15 8 15
-0.041286 -0.297016 -0.650303 16 8 15
-0.038853 -0.296889 -0.650025 15 7 14
-0.036408 -0.296651 -0.649503 15 7 14
-0.033935 -0.296129 -0.648360 16 8 15
-0.031533 -0.296201 -0.648519 16 8 15
-0.029107 -0.296039 -0.648162 14 7 14
-0.026670 -0.295732 -0.647491 14 9 14
-0.024235 -0.295383 -0.646726 13 7 14
-0.021827 -0.295319 -0.646587 13 7 13
-0.019414 -0.295158 -0.646235 13 6 13
-0.017000 -0.294944 -0.645767 13 6 12
-0.014588 -0.294694 -0.645219 14 7 13
-0.012177 -0.294377 -0.644523 14 6 14
-0.009778 -0.294284 -0.644320 14 6 13
-0.007383 -0.294251 -0.644248 12 7 13
-0.004988 -0.294229 -0.644201 12 7 13
-0.002594 -0.294224 -0.644188 12 7 13
-0.000200 -0.294216 -0.644172 12 7 13
0.002192 -0.294055 -0.643820 13 7 15
0.004582 -0.293892 -0.643463 12 6 13
0.006978 -0.294080 -0.643875 8 7 14
0.051594 -0.303158 -0.663750 17 20 34
0.054617 -0.306276 -0.670577 22 25 40
0.057681 -0.309346 -0.677298 33 36 52
0.060596 -0.311391 -0.681776 42 44 62
0.063399 -0.312717 -0.684679 47 51 68
0.066118 -0.313546 -0.686494 49 55 71
0.068799 -0.314141 -0.687797 47 53 69
0.071509 -0.314816 -0.689274 47 53 70
0.074314 -0.315854 -0.691547 49 55 71
0.250552 -0.489430 -1.071583 39 42 49
0.281468 -0.481013 -1.053155 32 34 38
0.309986 -0.297832 -0.652090 26 26 38
0.312086 -0.297524 -0.651415 26 26 37
0.314347 -0.297373 -0.651084 27 27 36
0.321198 -0.296996 -0.650259 19 19 29
0.323412 -0.296810 -0.649851 17 17 27
0.325623 -0.296624 -0.649444 16 16 26
0.313204 -0.246883 -0.540539 30 29 36
0.317362 -0.240891 -0.527418 21 20 26
0.318100 -0.239969 -0.525400 19 18 24
0.318956 -0.239147 -0.523600 17 16 22
0.320158 -0.238592 -0.522386 17 17 22
0.321706 -0.238301 -0.521749 17 16 22
0.323363 -0.238094 -0.521295 20 19 24
0.326740 -0.239147 -0.523601 32 32 34
0.329857 -0.239999 -0.525467 39 40 42
0.332303 -0.240356 -0.526247 44 45 47
0.333922 -0.240114 -0.525719 47 48 50
0.335488 -0.239836 -0.525110 47 48 46
0.336799 -0.239382 -0.524115 50 51 50
0.766010 -0.306740 -0.671593 34 32 38
0.771042 -0.307752 -0.673809 33 31 37
0.773362 -0.307679 -0.673648 34 32 37
0.772966 -0.306529 -0.671131 32 30 36
0.775443 -0.306522 -0.671116 33 31 37
0.780097 -0.307373 -0.672979 33 32 37
0.785406 -0.308476 -0.675394 30 30 35
0.786949 -0.308098 -0.674565 28 28 33
0.791249 -0.308798 -0.676097 25 24 29
0.795008 -0.309282 -0.677159 22 21 26
0.798168 -0.309532 -0.677706 21 20 25
0.801734 -0.309937 -0.678592 21 20 25
0.805358 -0.310362 -0.679522 22 21 26
-0.753543 -0.444417 -0.965177 66 65 59
-0.748234 -0.443397 -0.962961 74 73 68
-0.742145 -0.441902 -0.959714 82 80 77
-0.735574 -0.440104 -0.955809 86 86 80
-0.727812 -0.437573 -0.950314 88 90 81
-0.720462 -0.435266 -0.945303 90 90 82
-0.713671 -0.433276 -0.940980 96 92 85
-0.707465 -0.431624 -0.937392 96 93 86
-0.700476 -0.429474 -0.932724 99 95 88
-0.694005 -0.427623 -0.928703 97 93 87
-0.672349 -0.422687 -0.917984 90 86 77
-0.667938 -0.422056 -0.916612 91 87 78
-0.663499 -0.421400 -0.915188 94 90 81
-0.658917 -0.420646 -0.913551 98 94 85
-0.655424 -0.420583 -0.913414 102 98 89
-0.651899 -0.420499 -0.913232 102 98 89
-0.648105 -0.420240 -0.912668 101 96 84
-0.644347 -0.420001 -0.912150 100 95 84
-0.634531 -0.420235 -0.912658 89 85 74
-0.631181 -0.420263 -0.912718 84 81 70
-0.628104 -0.420473 -0.913176 91 84 74
-0.617459 -0.420157 -0.912489 104 97 87
-0.614838 -0.420685 -0.913634 103 96 86
-0.612778 -0.421603 -0.915630 104 97 87
-0.604939 -0.425665 -0.924450 91 84 74
-0.604565 -0.427831 -0.929155 89 82 72
-0.604883 -0.430515 -0.934984 95 88 78
-0.603680 -0.432141 -0.938516 99 92 82
-0.605129 -0.435696 -0.946236 102 95 85
-0.605163 -0.438267 -0.951820 102 95 85
-0.604736 -0.440533 -0.956740 103 96 86
-0.610923 -0.447672 -0.972245 104 97 87
-0.618265 -0.455747 -0.989783 103 96 86
-0.661658 -0.499624 -1.085073 91 85 74
-0.657625 -0.499624 -1.085073 95 89 76
-0.754097 -0.583654 -1.267567 105 97 87
-0.752256 -0.585889 -1.272422 104 102 93
-0.736342 -0.592104 -1.285920 37 35 35
-0.731809 -0.592303 -1.286352 36 36 41
-0.726671 -0.592012 -1.285719 37 36 41
-0.722938 -0.592869 -1.287581 38 37 45
-0.719161 -0.593701 -1.289389 40 38 46
-0.663094 -0.603732 -1.311173 37 45 68
-0.659483 -0.604889 -1.313686 38 46 68
-0.656102 -0.606277 -1.316700 39 49 75
-0.652702 -0.607667 -1.319718 38 48 75
-0.649157 -0.608942 -1.322488 39 50 79
-0.645454 -0.610087 -1.324975 41 52 82
-0.641717 -0.611217 -1.327430 42 54 86
-0.637922 -0.612310 -1.329803 42 55 90
-0.634194 -0.613484 -1.332353 43 56 92
-0.630964 -0.615162 -1.335998 46 61 98
-0.627517 -0.616654 -1.339237 47 60 99
-0.623680 -0.617783 -1.341690 48 61 109
-0.619590 -0.618679 -1.343634 49 62 107
-0.615565 -0.619653 -1.345751 48 67 111
-0.611054 -0.620150 -1.346830 50 67 110
-0.606749 -0.620867 -1.348387 53 72 122
-0.602680 -0.621839 -1.350499 55 72 119
-0.598815 -0.623040 -1.353105 52 74 126
-0.594588 -0.623880 -1.354931 55 75 125
-0.590378 -0.624754 -1.356828 58 80 134
-0.586247 -0.625726 -1.358940 60 81 134
-0.582210 -0.626817 -1.361309 57 81 136
-0.577845 -0.627572 -1.362948 58 81 135
-0.573562 -0.628428 -1.364808 58 84 140
-0.569305 -0.629328 -1.366763 58 86 141
-0.565037 -0.630234 -1.368730 59 85 142
-0.560706 -0.631084 -1.370576 60 86 144
-0.501307 -0.633260 -1.375301 64 90 150
-0.495484 -0.632351 -1.373327 64 91 149
-0.134737 -0.308671 -0.670366 58 72 122
-0.131897 -0.307857 -0.668598 50 64 100
-0.128864 -0.306552 -0.665763 40 54 84
-0.126063 -0.305760 -0.664044 33 46 73
-0.123431 -0.305354 -0.663162 24 37 58
-0.120839 -0.305032 -0.662463 17 27 47
-0.118229 -0.304651 -0.661635 14 19 38
-0.115618 -0.304251 -0.660766 12 17 34
-0.113080 -0.304029 -0.660284 14 16 30
-0.110581 -0.303903 -0.660011 11 13 27
-0.108105 -0.303840 -0.659873 13 12 20
-0.105641 -0.303806 -0.659800 12 11 21
-0.103175 -0.303762 -0.659705 13 8 17
-0.100713 -0.303733 -0.659641 9 6 15
-0.098247 -0.303686 -0.659540 12 9 15
-0.095753 -0.303550 -0.659244 10 7 14
-0.093226 -0.303301 -0.658702 13 7 14
-0.090717 -0.303097 -0.658261 11 6 14
-0.080745 -0.302398 -0.656742 13 9 15
-0.078235 -0.302129 -0.656158 12 7 13
-0.075727 -0.301852 -0.655556 12 8 14
-0.073232 -0.301609 -0.655029 13 5 13
-0.070767 -0.301479 -0.654745 12 5 12
-0.068309 -0.301370 -0.654509 12 5 12
-0.065851 -0.301252 -0.654252 13 6 13
-0.063411 -0.301211 -0.654164 15 7 15
-0.060936 -0.300991 -0.653687 13 5 13
-0.058488 -0.300899 -0.653486 13 7 14
-0.056064 -0.300920 -0.653532 12 6 13
-0.053597 -0.300705 -0.653065 13 7 14
-0.051113 -0.300374 -0.652347 13 6 14
-0.048641 -0.300077 -0.651701 12 5 13
-0.046187 -0.299871 -0.651255 13 6 13
-0.043761 -0.299828 -0.651160 12 6 13
-0.041341 -0.299830 -0.651164 12 6 13
-0.038911 -0.299754 -0.650999 13 6 13
-0.036463 -0.299513 -0.650477 12 5 13
-0.033989 -0.299018 -0.649401 13 6 14
-0.031578 -0.299040 -0.649448 13 7 14
-0.029146 -0.298853 -0.649042 13 6 13
-0.026705 -0.298526 -0.648332 13 6 14
-0.024264 -0.298142 -0.647500 14 6 14
-0.021851 -0.298052 -0.647304 13 6 14
-0.019435 -0.297886 -0.646942 13 6 14
-0.017018 -0.297657 -0.646445 12 6 13
-0.014602 -0.297391 -0.645869 12 5 13
-0.012194 -0.297197 -0.645446 13 7 14
-0.009793 -0.297121 -0.645282 13 7 14
-0.007390 -0.296938 -0.644884 13 8 15
-0.004990 -0.296702 -0.644371 12 7 14
-0.002596 -0.296816 -0.644620 11 6 13
-0.000201 -0.296870 -0.644735 13 8 14
0.051587 -0.305584 -0.663662 16 19 33
0.054579 -0.308557 -0.670117 22 25 40
0.057622 -0.311543 -0.676603 31 34 51
0.060529 -0.313575 -0.681017 40 44 62
0.063339 -0.314967 -0.684039 46 51 67
0.066060 -0.315822 -0.685896 49 55 68
0.068731 -0.316381 -0.687109 47 53 68
0.071410 -0.316939 -0.688322 47 53 70
0.074165 -0.317783 -0.690154 49 55 71
0.076959 -0.318732 -0.692216 48 54 70
0.267453 -0.487920 -1.059654 36 35 45
0.270855 -0.486956 -1.057562 37 36 47
0.274292 -0.486083 -1.055666 34 33 43
0.277854 -0.485452 -1.054295 33 35 37
0.281451 -0.484899 -1.053094 32 34 37
0.325365 -0.298801 -0.648929 17 17 27
0.327544 -0.298589 -0.648469 16 16 26
0.317946 -0.240329 -0.521942 19 18 23
0.319073 -0.239719 -0.520616 18 17 22
0.320561 -0.239385 -0.519892 17 15 21
0.322049 -0.239056 -0.519176 17 16 20
0.324664 -0.239561 -0.520275 21 22 23
0.327576 -0.240279 -0.521834 29 29 31
0.330498 -0.240995 -0.523389 39 39 41
0.333125 -0.241490 -0.524464 44 44 46
0.334802 -0.241294 -0.524037 46 46 46
0.336096 -0.240826 -0.523021 48 49 49
0.337374 -0.240351 -0.521990 48 45 47
0.339042 -0.240159 -0.521572 45 43 44
0.770587 -0.310073 -0.673411 33 31 34
0.771226 -0.309326 -0.671787 33 31 34
0.766637 -0.306493 -0.665635 33 31 34
0.769703 -0.306729 -0.666148 34 32 35
0.774526 -0.307662 -0.668174 34 32 36
0.779764 -0.308752 -0.670543 32 31 36
0.782872 -0.308996 -0.671070 33 31 36
0.787009 -0.309642 -0.672474 29 28 33
0.791009 -0.310231 -0.673753 26 25 30
0.795214 -0.310896 -0.675197 23 22 27
0.800711 -0.312060 -0.677726 24 23 28
0.804110 -0.312402 -0.678469 23 22 27
0.807916 -0.312900 -0.679549 21 20 25
0.811909 -0.313466 -0.680780 21 20 25
0.815585 -0.313907 -0.681738 20 19 24
-0.777732 -0.447475 -0.964037 63 63 61
-0.753753 -0.448129 -0.965445 65 64 59
-0.748586 -0.447186 -0.963413 74 73 68
-0.742671 -0.445784 -0.960395 81 79 75
-0.736236 -0.444056 -0.956670 85 84 78
-0.728688 -0.441636 -0.951457 87 88 79
-0.721252 -0.439261 -0.946340 90 89 81
-0.714343 -0.437185 -0.941868 95 91 84
-0.708342 -0.435646 -0.938553 95 92 85
-0.701512 -0.433581 -0.934103 97 95 87
-0.695042 -0.431718 -0.930091 95 93 87
-0.668730 -0.425967 -0.917699 87 83 74
-0.664252 -0.425283 -0.916227 90 86 77
-0.659884 -0.424664 -0.914892 97 93 84
-0.656215 -0.424489 -0.914517 103 99 90
-0.652572 -0.424330 -0.914174 100 97 87
-0.648835 -0.424108 -0.913695 99 95 83
-0.645263 -0.423992 -0.913446 100 96 85
-0.641619 -0.423828 -0.913091 100 96 85
-0.638233 -0.423833 -0.913102 90 86 75
-0.635044 -0.423969 -0.913396 86 82 71
-0.631823 -0.424085 -0.913646 85 82 71
-0.628751 -0.424304 -0.914117 88 80 70
-0.625246 -0.424230 -0.913958 95 87 77
-0.621667 -0.424106 -0.913691 100 93 83
-0.618504 -0.424265 -0.914034 104 97 87
-0.615568 -0.424584 -0.914720 105 98 88
-0.613150 -0.425264 -0.916186 103 96 86
-0.610906 -0.426073 -0.917929 102 95 85
-0.608578 -0.426833 -0.919567 99 92 82
-0.606477 -0.427762 -0.921567 93 86 76
-0.604712 -0.428940 -0.924104 89 82 72
-0.603492 -0.430519 -0.927507 89 82 72
-0.602866 -0.432543 -0.931867 90 83 73
-0.602538 -0.434805 -0.936741 94 87 77
-0.601804 -0.441935 -0.952102 102 95 85
-0.606348 -0.447906 -0.964964 102 95 85
-0.613045 -0.455547 -0.981426 102 95 85
-0.651407 -0.495853 -1.068262 88 81 71
-0.651180 -0.498720 -1.074438 91 85 72
-0.754121 -0.588383 -1.267608 105 97 87
-0.752013 -0.590427 -1.272011 101 98 90
-0.736945 -0.597372 -1.286973 38 36 36
-0.732363 -0.597536 -1.287326 37 36 41
-0.727210 -0.597233 -1.286674 38 37 42
-0.723394 -0.598031 -1.288394 38 38 46
-0.663316 -0.608809 -1.311613 38 46 70
-0.659663 -0.609937 -1.314044 38 46 67
-0.656274 -0.611330 -1.317044 37 47 73
-0.652862 -0.612721 -1.320042 38 48 75
-0.649293 -0.613985 -1.322765 40 51 80
-0.645598 -0.615148 -1.325270 41 51 81
-0.641866 -0.616294 -1.327739 42 54 87
-0.638080 -0.617405 -1.330133 42 56 91
-0.634330 -0.618569 -1.332640 44 57 92
-0.630926 -0.620091 -1.335918 45 60 97
-0.627495 -0.621610 -1.339192 47 61 98
-0.623630 -0.622720 -1.341582 51 62 106
-0.619480 -0.623560 -1.343394 51 64 105
-0.615463 -0.624551 -1.345527 52 71 114
-0.610983 -0.625083 -1.346675 50 67 109
-0.606670 -0.625797 -1.348212 53 72 121
-0.602592 -0.626767 -1.350301 51 69 114
-0.598771 -0.628021 -1.353005 54 75 128
-0.594554 -0.628880 -1.354855 53 73 123
-0.590335 -0.629751 -1.356730 56 78 131
-0.586190 -0.630715 -1.358808 59 80 133
-0.582143 -0.631804 -1.361153 59 82 137
-0.577764 -0.632548 -1.362756 58 81 135
-0.573481 -0.633411 -1.364616 61 82 140
-0.569229 -0.634324 -1.366582 64 83 142
-0.501221 -0.638261 -1.375065 62 88 148
-0.139021 -0.315226 -0.679121 60 75 124
-0.135217 -0.312271 -0.672754 58 73 125
-0.132051 -0.310705 -0.669380 49 63 100
-0.128984 -0.309314 -0.666384 41 54 86
-0.126193 -0.308545 -0.664728 34 46 72
-0.123562 -0.308146 -0.663867 25 37 56
-0.120968 -0.307821 -0.663168 19 28 47
-0.118354 -0.307433 -0.662332 14 21 38
-0.115742 -0.307033 -0.661470 11 17 34
-0.113200 -0.306806 -0.660981 12 15 30
-0.110690 -0.306660 -0.660665 11 13 27
-0.108204 -0.306571 -0.660473 12 12 20
-0.105744 -0.306555 -0.660440 12 12 21
-0.103272 -0.306502 -0.660325 13 9 18
-0.100799 -0.306444 -0.660200 10 7 16
-0.098323 -0.306376 -0.660054 11 8 15
-0.095839 -0.306277 -0.659841 9 7 14
-0.075806 -0.304604 -0.656236 12 6 12
-0.073305 -0.304349 -0.655687 13 6 13
-0.070838 -0.304217 -0.655402 12 5 11
-0.068378 -0.304108 -0.655168 14 7 14
-0.065919 -0.303999 -0.654932 13 6 13
-0.063493 -0.304036 -0.655014 12 5 12
-0.061005 -0.303767 -0.654433 13 7 13
-0.058546 -0.303626 -0.654129 13 6 13
-0.056119 -0.303650 -0.654182 14 6 13
-0.053668 -0.303533 -0.653930 13 5 12
-0.051175 -0.303162 -0.653129 13 5 12
-0.048702 -0.302880 -0.652522 13 6 13
-0.046251 -0.302706 -0.652148 14 6 13
-0.043806 -0.302561 -0.651835 13 6 13
-0.041383 -0.302556 -0.651824 12 5 12
-0.038949 -0.302469 -0.651638 13 6 13
-0.036501 -0.302247 -0.651159 13 6 13
-0.034036 -0.301846 -0.650295 13 5 13
-0.031611 -0.301768 -0.650126 13 5 12
-0.029173 -0.301543 -0.649642 13 6 13
-0.026730 -0.301215 -0.648935 13 6 13
-0.024288 -0.300843 -0.648133 13 5 12
-0.021871 -0.300725 -0.647880 13 6 13
-0.019452 -0.300552 -0.647508 13 6 13
-0.017033 -0.300322 -0.647011 12 8 13
-0.014615 -0.300059 -0.646445 11 6 12
-0.012207 -0.299921 -0.646148 12 8 15
-0.009804 -0.299850 -0.645995 11 7 13
-0.007397 -0.299620 -0.645500 12 7 13
0.054538 -0.310810 -0.669606 22 25 40
0.057562 -0.313733 -0.675904 31 36 52
0.060464 -0.315771 -0.680295 37 43 60
0.063286 -0.317242 -0.683464 44 50 66
0.066011 -0.318135 -0.685388 49 55 70
0.068675 -0.318678 -0.686558 47 53 68
0.071335 -0.319163 -0.687601 46 52 69
0.074051 -0.319857 -0.689097 47 53 69
0.076803 -0.320656 -0.690819 48 54 70
0.325267 -0.301121 -0.648733 18 18 28
0.327441 -0.300904 -0.648265 14 14 24
0.329601 -0.300676 -0.647775 19 19 29
0.331706 -0.300403 -0.647187 18 19 29
0.313708 -0.248122 -0.534552 27 26 33
0.313885 -0.246700 -0.531488 27 26 31
0.314483 -0.245624 -0.529171 25 24 28
0.318147 -0.240952 -0.519105 18 17 22
0.319403 -0.240445 -0.518013 17 16 22
0.320890 -0.240117 -0.517307 16 16 20
0.322600 -0.239959 -0.516966 19 19 20
0.324875 -0.240221 -0.517531 21 21 23
0.327711 -0.240892 -0.518975 30 30 32
0.330966 -0.241861 -0.521064 37 37 39
0.333326 -0.242169 -0.521727 48 48 51
0.334972 -0.241957 -0.521271 45 46 50
0.336484 -0.241652 -0.520614 46 44 45
0.338583 -0.241769 -0.520866 48 46 46
0.339328 -0.240924 -0.519044 48 46 47
0.759995 -0.307281 -0.662004 33 31 34
0.762455 -0.307281 -0.662004 33 31 34
0.766473 -0.307907 -0.663353 33 31 34
0.771306 -0.308855 -0.665396 33 31 34
0.776399 -0.309901 -0.667649 32 30 37
0.780638 -0.310600 -0.669155 35 33 38
0.784599 -0.311185 -0.670415 33 31 37
0.787693 -0.311424 -0.670929 32 31 36
0.791289 -0.311858 -0.671864 31 30 35
0.798295 -0.313630 -0.675681 24 23 28
0.802063 -0.314122 -0.676742 25 24 29
0.806226 -0.314765 -0.678128 23 22 27
0.810535 -0.315461 -0.679628 21 20 25
0.814352 -0.315962 -0.680707 20 19 24
0.816157 -0.315682 -0.680104 21 20 25
-0.754032 -0.451884 -0.965803 65 64 61
-0.749057 -0.451050 -0.964019 70 69 64
-0.743262 -0.449711 -0.961158 75 74 70
-0.729545 -0.445695 -0.952576 86 86 77
-0.721948 -0.443205 -0.947253 88 87 79
-0.714839 -0.440991 -0.942521 92 89 82
-0.709127 -0.439621 -0.939594 93 91 83
-0.702511 -0.437674 -0.935433 96 92 86
-0.696086 -0.435828 -0.931487 96 93 87
-0.689869 -0.434095 -0.927782 98 93 84
-0.669457 -0.429844 -0.918697 84 80 71
-0.664966 -0.429149 -0.917212 87 83 74
-0.660794 -0.428654 -0.916154 95 91 82
-0.649491 -0.427936 -0.914620 99 95 83
-0.646107 -0.427946 -0.914641 98 94 83
-0.642295 -0.427671 -0.914053 96 92 81
-0.638650 -0.427505 -0.913699 94 90 79
-0.635292 -0.427530 -0.913752 87 83 72
-0.632265 -0.427780 -0.914285 82 79 67
-0.629165 -0.427982 -0.914718 90 81 72
-0.625832 -0.428028 -0.914815 92 83 74
-0.622438 -0.428032 -0.914824 102 95 85
-0.619208 -0.428149 -0.915075 104 97 87
-0.615975 -0.428266 -0.915324 103 96 86
-0.613167 -0.428681 -0.916211 103 96 86
-0.610701 -0.429340 -0.917621 101 94 84
-0.608476 -0.430179 -0.919413 100 93 83
-0.606177 -0.430973 -0.921111 96 89 79
-0.604056 -0.431904 -0.923101 88 81 71
-0.602038 -0.432920 -0.925272 85 78 68
-0.600277 -0.434133 -0.927865 92 85 75
-0.599904 -0.436370 -0.932645 95 88 78
-0.597222 -0.442082 -0.944854 101 94 84
-0.599565 -0.446441 -0.954169 101 94 84
-0.604354 -0.452685 -0.967514 100 93 83
-0.604540 -0.455534 -0.973604 97 90 80
-0.643995 -0.488185 -1.043389 95 89 77
-0.640117 -0.488185 -1.043389 90 85 71
-0.636239 -0.488185 -1.043389 88 81 70
-0.751407 -0.590959 -1.263046 105 98 88
-0.742863 -0.603076 -1.288944 38 37 41
